1870
89.0406  402.515  820.356
728.211  57.9059  886.747
732.111  80.1752  36.201
540.31  112.231  713.961
428.956  969.548  326.205
737.742  817.508  31.9234
963.038  74.7244  633.599
484.961  911.415  824.647
247.927  737.705  170.493
138.259  892.967  104.883
353.146  407.57  881.905
425.956  89.2563  371.723
41.5584  798.024  506.334
114.37  739.568  808.435
679.36  916.217  479.117
597.456  956.905  366.558
775.666  483.125  74.4998
718.666  900.461  950.673
234.352  231.227  419.276
805.146  601.843  195.951
871.469  309.577  928.007
259.838  248.992  391.579
886.58  325.442  165.264
772.16  299.04  487.947
324.692  737.281  75.2658
115.975  491.87  640.455
817.764  866.018  524.899
262.924  715.532  111.501
453.436  121.478  821.76
912.217  178.986  56.4325
241.752  546.697  89.0643
852.388  396.57  570.408
550.536  586.837  893.323
864.836  235.967  786.157
968.688  30.2095  325.303
657.995  929.89  942.029
174.939  845.225  836.579
70.8883  309.528  767.282
102.088  219.059  243.151
840.866  745.136  528.466
552.932  750.303  208.502
919.28  331.399  299.176
312.476  837.048  187.181
881.571  30.7234  699.235
317.046  852.249  817.286
62.6681  120.394  489.892
818.228  241.752  925.215
194.556  248.612  228.046
678.858  220.149  136.464
78.6675  300.274  840.399
723.564  303.233  816.878
872.579  756.958  265.155
655.549  67.4089  372.765
61.7475  697.551  870.576
597.067  461.485  871.221
865.133  380.982  708.4
212.529  851.048  201.181
83.7556  624.03  435.606
965.77  312.457  389.541
196.538  151.449  425.984
824.242  274.977  69.0577
182.843  560.643  562.094
884.572  172.568  267.648
59.6584  287.328  387.965
816.023  794.329  891.344
804.648  135.087  238.44
101.543  108.454  476.309
768.908  813.135  687.267
113.906  257.002  454.712
649.98  242.938  144.616
920.699  605.644  895.936
98.2836  934.471  300.578
886.052  643.148  111.929
781.703  877.275  440.093
878.806  263.047  33.8927
811.657  860.982  821.02
780.159  889.891  561.396
161.594  695.301  129.446
248.035  500.256  125.262
640.557  231.077  74.9545
745.463  776.702  834.249
153.987  448.001  199.835
69.6697  772.317  142.723
914.909  909.725  444.205
655.464  204.322  32.5086
309.221  100.051  173.404
93.0845  754.3  205.482
159.489  443.301  521.544
160.135  722.217  639.202
74.7122  760.399  558.073
843.08  818.503  707.141
474.531  667.428  233.098
410.184  43.4708  534.102
708.1  73.1626  746.283
537.675  130.103  91.8717
851.721  867.251  332.408
444.208  382.757  901.498
60.1974  151.772  558.883
859.847  633.076  242.597
96.6607  140.669  161.335
970.591  167.809  618.676
702.902  131.45  475.174
759.121  102.685  33.7382
61.3598  246.926  595.683
766.695  857.853  298.149
347.369  312.164  56.1816
356.895  308.567  889.192
201.152  926.93  614.863
647.654  967.646  382.89
466.985  569.602  81.0745
853.569  348.797  638.89
629.386  234.482  775.038
657.945  462.704  76.4873
770.977  262.123  877.405
491.571  313.816  159.283
853.956  329.655  690.857
966.882  758.897  922.416
553.872  351.374  228.445
238.058  868.805  703.618
193.951  212.113  549.085
368.275  63.3617  684.327
45.139  753.162  320.281
667.424  353.036  691.6
586.673  105.046  761.885
144.962  825.556  687.673
146.505  779.385  875.378
86.9798  968.991  61.1673
218.279  658.009  161.052
94.6804  336.7  950.455
697.486  252.485  31.7364
683.059  965.557  745.974
681.114  272.081  886.797
61.0966  708.219  377.084
909.397  307.872  833.228
146.814  556.587  666.179
533.98  879.97  492.297
364.915  120.819  328.986
559.085  278.859  780.804
404.92  892.683  80.6166
909.245  576.355  374.678
96.2112  93.8933  653.627
858.555  123.618  310.521
911.076  265.882  122.718
654.337  898.397  888.629
277.101  28.4835  346.887
709.318  562.388  311.585
395.719  93.8675  195.558
66.6997  198.836  549.785
746.685  956.755  249.213
557.816  103.648  454.493
885.56  445.339  662.542
516.439  703.322  588.309
615.338  35.8754  273.327
249.014  138.144  308.913
296.234  326.539  188.945
158.772  528.561  52.0236
377.037  742.135  30.1939
389.437  50.8671  903.365
223.517  405.49  849.512
238.435  33.0336  633.268
220.651  925.065  515.712
202.013  467.846  73.7197
778.619  354.191  100.053
229.211  138.664  146.351
314.412  160.316  777.056
156.601  638.007  233.235
832.39  418.562  900.009
705.919  820.181  110.925
640.284  967.668  223.104
692.88  414.978  703.257
549.009  691.311  108.801
464.621  66.1144  648.647
849.803  637.125  540.958
395.624  810.464  131.768
875.064  613.395  283.123
948.213  654.207  137.044
563.071  203.74  820.039
383.083  424.172  734.187
524.266  74.6471  84.1279
169.037  687.356  920.246
778.606  740.75  489.456
57.2274  317.575  320.157
333.79  181.064  63.3177
840.646  252.177  189.58
422.52  645.965  912.15
33.7192  256.095  348.366
431.979  770.369  101.469
188.494  777.967  508.929
90.8033  264.454  602.684
886.752  847.466  717.255
344.845  349.14  97.3855
658.13  749.711  210.063
111.554  102.567  241.316
927.367  924.599  95.9474
514.129  702.794  182.005
263.789  864.961  822.935
731.096  891.442  725.891
577.654  105.501  249.356
463.925  788.908  554.088
37.1998  503.409  179.338
557.8  768.699  764.694
865.628  964.827  84.8141
635.572  231.434  946.281
617.444  739.566  539.647
504.336  419.578  860.16
89.4379  930.831  188.542
804.098  206.029  524.81
216.122  537.666  764.416
590.306  570.959  91.2815
71.0112  834.507  390.671
287.953  63.1925  346.505
306.418  93.7213  961.616
605.981  58.8715  505.194
816.881  183.588  247.847
362.156  310.996  803.556
87.845  410.214  164.606
482.536  837.831  908.199
520.119  66.7962  271.998
966.877  814.137  159.988
243.337  626.79  930.4
494.685  555.408  701.148
417.517  764.863  898.302
35.7622  117.886  553.863
145.406  271.914  145.928
509.168  211.902  355.704
427.793  40.2419  224.148
32.3923  861.134  314.684
802.827  284.037  921.692
288.893  881.662  508.834
108.316  400.241  625.716
521.612  441.215  893.938
478.37  232.438  943.063
801.517  241.517  739.008
472.465  326.692  427.557
175.91  291.744  808.392
703.987  708.954  899.227
729.76  932.341  742.53
438.322  38.0543  510.551
533.336  138.859  887.055
512.237  703.893  132.316
91.0509  473.034  537.548
959.413  771.236  466.294
117.805  660.24  639.049
901.938  687.728  297.4
700.99  913.138  61.4119
851.204  139.451  532.255
165.21  159.259  847.641
269.082  289.351  206.46
112.38  863.038  799.805
868.873  258.079  751.509
564.786  350.413  820.141
448.07  157.785  432.105
683.705  877.45  225.386
323.857  722.725  787.017
341.302  918.401  491.471
486.712  44.3517  869.992
339.358  772.246  876.847
872.77  97.3414  329.808
729.153  447.826  822.491
123.011  640.536  423.772
128.76  177.288  849.362
893.262  564.843  660.114
769.228  84.5217  816.804
892.887  367.483  395.821
47.3929  252.947  802.629
494.523  450.114  802.613
410.148  40.8856  374.717
908.749  184.358  384.812
741.768  82.7229  734.89
527.285  662.013  965.931
209.394  58.8065  707.016
701.938  34.0658  843.482
798.699  492.949  415.323
148.671  181.771  356.3
872.386  238.923  694.706
939.682  921.625  191.05
151.25  303.59  69.5964
30.6236  383.067  257.536
911.668  170.08  202.603
848.962  148.122  492.749
871.001  631.426  917.416
230.259  215.527  84.041
743.449  214.318  435.301
818.381  327.155  881.235
457.512  890.923  936.144
98.21  398.729  406.133
258.556  233.143  877.464
191.588  965.561  592.887
49.2157  790.224  675.26
696.006  92.2374  670.746
182.464  703.353  574.718
99.3818  128.857  879.111
781.72  32.6633  53.9917
652.783  338.83  949.109
267.592  173.137  199.534
843.332  760.928  427.984
248.313  676.831  909.206
845.497  512.926  384.783
691.866  484.106  541.788
771.899  440.126  52.9138
939.965  263.627  771.489
814.78  37.9136  627.386
610.287  108.139  797.757
911.019  682.411  92.3916
550.485  327.548  112.991
566.726  434.81  612.054
495.038  238.192  332.026
643.528  163.55  707.611
68.0163  779.105  468.795
250.686  450.247  760.826
770.386  796.808  577.73
31.0198  820.957  363.464
424.953  312.626  33.5652
199.663  396.523  483.09
718.86  717.716  37.4273
79.0451  740.951  306.584
792.149  339.903  164.991
863.048  927.231  820.311
834.233  124.264  401.853
472.568  835.676  626.007
848.054  179.284  749.301
558.396  749.667  567.261
61.3603  111.415  140.446
967.061  515.602  875.143
297.431  951.951  268.586
375.38  532.375  869.618
537.918  73.9769  401.628
297.098  415.184  891.354
297.404  789.619  114.7
457.627  845.679  270.979
100.425  405.124  258.143
43.0794  821.058  565.582
218.525  719.818  827.279
66.9148  191.341  828.616
528.745  336.233  917.821
297.005  883.541  277.373
259.111  753.967  508.195
652.535  876.802  113.143
857.883  146.523  757.644
676.017  452.478  34.1839
731.931  597.512  380.739
643.737  694.053  963.968
614.619  418.518  856.191
916.786  937.18  545.772
192.015  625.447  120.556
933.31  666.542  789.894
862.709  691.748  969.371
284.129  131.592  85.2272
832.276  414.852  788.703
844.851  330.465  173.753
624.111  766.779  906.514
312.293  532.28  575.092
367.987  109.753  829.329
359.35  656.762  699.719
929.417  678.906  615.665
408.613  290.253  928.26
264.809  711.201  966.35
707.772  65.5522  858.767
767.388  891.384  488.938
269.899  862.673  149.103
335.191  805.773  610.328
45.166  239.108  674.986
813.792  870.446  574.708
123.559  252.661  52.6439
806.161  194.238  298.259
471.704  923.019  718.63
944.142  794.87  294.123
917.973  837.34  689.937
72.9869  867.988  526.739
864.803  452.839  340.772
931.321  230.811  351.23
488.633  921.493  678.588
104.205  819.724  355.623
751.019  79.9765  571.651
147.304  384.609  452.089
965.05  345.963  415.147
60.2967  809.427  535.541
102.494  110.897  304.757
105.624  749.375  749.573
955.567  370.172  889.176
100.086  608.473  683.867
52.6364  862.65  790.017
215.808  32.4019  671.812
681.575  707.808  259.788
66.7261  806.18  319.487
745.349  95.9552  695.627
97.4975  101.331  58.914
774.444  574.542  148.102
853.32  86.8651  656.28
188.784  744.735  160.463
320.215  375.505  829.822
70.3998  222.89  452.683
939.132  600.898  696.529
361.65  769.182  175.96
98.1256  924.377  127.816
962.04  205.13  801.132
357.979  608.947  389.331
230.669  914.521  718.435
916.522  529.901  171.79
663.316  720.225  643.868
683.721  699.918  847.571
901.269  725.959  324.248
171.834  263.703  30.0772
242.076  892.418  77.838
387.727  311.359  856.471
278.005  305.164  436.141
904.836  807.712  538.777
137.921  875.838  896.928
792.017  715.29  134.42
289.925  249.877  670.21
145.522  658.238  609.728
405.802  751.429  158.153
117.084  119.183  185.729
926.873  635.599  233.733
105.274  920.177  511.092
418.194  119.23  62.4631
875.889  710.108  632.351
499.839  778.771  691.466
207.255  457.44  285.091
415.16  927.648  587.576
634.649  864.984  655.549
464.162  207.09  773.929
673.576  559.095  242.964
157.796  211.189  506.599
110.131  632.15  223.406
461.205  137.297  944.953
756.325  50.9838  794.852
651.221  300.283  812.921
463.431  937.98  520.058
453.016  239.555  629.31
664.572  543.361  671.44
632.042  901.918  678.421
733.863  139.669  228.927
352.82  406.794  66.0132
502.392  448.789  838.279
794.505  893.211  795.663
929.039  34.0736  73.3628
789.207  822.533  271.959
813.759  157.991  780.375
446.761  880.727  896.76
362.994  933.998  239.769
62.4483  107.69  224.089
861.518  75.3777  861.208
829.537  234.009  355.189
687.63  593.632  906.695
265.437  920.102  908.473
762.31  834.374  80.636
157.405  896.88  487.721
938.516  283.631  172.137
835.349  542.398  911.26
740.089  885.752  692.356
82.9684  585.445  221.772
182.482  305.539  692.07
785.606  99.129  403.253
239.643  662.557  130.619
883.152  527.729  535.676
182.323  325.19  32.5255
674.708  951.736  966.12
940.104  417.011  843.994
474.738  49.1423  776.738
805.838  195.944  53.5664
886.698  611.016  537.702
204.732  85.2641  869.225
171.281  837.568  447.818
200.86  32.7806  638.2
837.649  855.846  242.623
579.352  509.199  587.499
243.203  922.643  420.457
689.262  914.341  933.696
863.968  340.921  303.143
802.238  288.675  278.158
889.139  361.089  280.1
454.544  591.434  272.098
573.218  933.666  49.9945
933.351  606.122  479.805
197.874  336.9  404.577
785.512  575.532  872.258
527.181  787.116  367.052
696.137  166.592  431.683
809.263  741.141  681.975
320.377  448.328  29.8846
609.823  967.527  288.158
679.909  233.996  223.028
514.461  751.287  966.451
845.012  958.292  383.787
713.072  770.794  135.141
36.7842  51.0255  720.731
89.703  601.935  111.967
830.859  340.369  605.782
776.467  560.116  651.037
129.005  888.764  740.788
33.2086  579.901  393.44
418.708  66.4171  678.197
604.208  961.659  476.972
776.307  185.63  559.73
32.8515  621.785  108.127
113.153  663.371  598.805
929.634  366.34  194.782
382.35  832.146  871.113
136.188  214.082  366.985
115.019  68.8285  882.19
157.786  127.224  403.942
621.478  786.084  488.93
57.4668  476.667  770.408
575.585  921.133  359.819
809.39  113.799  192.135
809.339  760.261  47.8577
543.63  886.999  912.481
904.885  276.835  783.543
263.13  475.829  246.647
761.414  91.5069  225.265
212.933  501.845  926.707
76.4137  483.27  612.807
628.721  930.381  365.16
830.754  62.6183  341.885
657.913  356.923  889.416
107.942  296.134  391.545
559.68  522.221  117.138
954.965  964.936  792.76
539.954  920.589  343.093
753.762  835.511  922.144
874.038  303.69  651.633
401.519  958.419  507.803
109.895  566.623  399.928
201.707  532.225  100.111
530.806  967.913  626.013
498.502  206.852  962.065
920.795  476.182  166.657
622.5  114.772  665.877
832.682  965.054  236.242
328.356  107.127  668.252
127.267  458.327  110.125
179.57  951.687  858.98
287.811  379.538  175.805
912.329  807.078  728.079
521.613  804.95  642.008
884.374  208.747  190.147
722.108  113.941  677.385
359.566  722.626  641.596
79.5866  396.053  132.272
548.181  44.1331  526.211
453.813  86.3106  425.446
159.676  899.31  258.156
817.328  950.241  166.874
309.682  218.31  754.426
491.659  122.704  733.807
826.261  650.546  104.922
768.411  855.592  681.26
529.488  96.1551  149.302
342.202  895.963  790.921
187.652  333.502  204.209
387.321  112.782  861.08
608.221  166.79  883.763
868.161  853.701  817.625
219.673  916.311  228.829
68.1248  417.834  424.042
705.203  778.663  966.952
69.1714  546.896  116.892
374.857  81.6193  29.4185
278.885  688.128  627.679
197.56  121.82  306.632
266.689  155.427  489.482
334.273  91.8304  461.782
647.232  164.498  471.066
428.047  634.547  827.572
138.176  74.7715  706.397
296.693  728.431  838.3
483.273  356.057  923.424
745.485  763.037  961.638
966.408  532.726  150.115
571.01  222.08  77.2821
781.318  552.656  38.2176
77.6625  837.832  556.702
435.784  241.598  85.55
133.874  622.313  503.553
81.6056  559.979  174.619
664.402  407.709  825.486
65.5672  303.165  509.382
694.331  289.604  965.787
908.355  287.229  597.965
522.947  730.926  55.3775
181.325  669.889  90.4523
208.87  639.14  964.472
547.436  100.862  649.708
860.22  639.182  629.505
483.37  176.71  587.094
817.483  834.286  964.222
921.077  473.527  674.416
679.484  103.19  582.771
659.311  697.557  144.9
731.385  741.911  862.937
88.0369  735.17  523.651
651.755  340.595  73.9519
488.397  123.378  318.359
535.346  190.099  431.728
101.977  862.773  860.691
32.9356  858.119  78.8312
854.918  149.666  807.949
921.209  967.747  141.593
319.039  888.556  487.765
37.683  786.608  444.056
98.231  649.488  114.549
353.302  969.029  562.128
129.572  157.969  397.325
486.316  398.104  186.85
138.384  744.535  477.596
205.299  61.3507  267.138
36.9045  362.121  729.011
269.498  760.155  69.5254
926.085  690.659  425.655
168.07  401.575  63.1651
736.936  887.349  286.988
357.13  59.984  801.542
785.83  866.748  607.805
233.706  387.266  961.558
193.779  373.596  644.367
826.457  216.701  318.968
882.537  325.269  424.605
493.501  856.792  341.153
297.131  130.295  295.433
412.768  885.487  714.419
831.874  217.401  81.803
460.791  883.761  466.132
84.3132  338.264  376.552
561.907  943.557  236.617
897.094  831.605  788.051
884.637  838.844  963.473
98.6204  577.578  463.286
401.241  508.593  819.617
109.438  354.186  463.332
545.828  960.714  350.095
733.584  405.252  279.349
451.246  53.2752  172.247
164.311  519.42  164.023
619.802  838.464  65.1001
818.322  566.239  555.32
66.4534  356.427  746.066
528.065  332.523  860.513
118.596  515.75  370.802
728.561  815.241  808.139
376.282  176.46  629.219
120.142  269.256  254.34
413.553  250.694  809.847
432.149  118.986  128.435
850.057  97.1442  447.336
865.325  818.65  599.211
106.935  324.387  557.634
111.809  813.038  883.885
378.378  36.1729  252.595
587.823  171.321  43.8355
282.378  134.915  851.554
253.052  898.548  265.923
577.346  91.133  966.574
794.812  136.918  459.948
856.299  71.7632  943.405
505.38  108.162  477.146
54.6945  284.984  817.924
309.776  925.644  287.765
912.089  144.958  800.525
831.12  859.153  431.749
918.676  834.13  251.023
426.036  648.907  874.741
115.133  500.071  135.642
103.112  65.38  317.969
767.903  599.479  286.218
599.001  118.706  967.65
174.27  651.276  683.232
312.674  807.608  712.206
956.49  918.355  932.792
921.054  703.981  481.603
939.227  462.115  423.029
176.779  520.631  300.085
308.749  367.302  229.185
167.499  969.353  341.329
68.6905  470.026  419.247
821.495  505.313  819.159
859.85  109.253  49.0955
276.484  882.439  247.347
775.087  649.183  840.539
266.44  79.0701  233.74
702.85  283.803  850.431
111.271  420.89  94.7315
455.625  850.424  408.275
791.357  917.059  830.926
369.384  939.701  503.945
527.685  963.646  177.572
80.381  449.215  936.396
404.358  85.4054  130.266
837.444  540.447  96.5802
373.447  168.167  900.474
872.172  243.78  439.072
714.747  388.629  900.415
97.6234  783.439  927.183
247.265  747.165  962.556
121.265  178.422  543.402
751.475  421.002  865.058
348.567  356.646  765.971
792.701  519.419  226.962
407.59  451.178  98.2533
966.23  691.853  297.361
965.647  371.819  638.089
855.277  929.357  110.125
569.706  29.3813  918.043
649.352  321.144  612.118
801.243  671.893  308.958
432.947  786.081  355.784
427.517  953.54  633.17
128.656  377.756  261.636
219.274  459.792  154.074
124.812  905.632  420.832
784.58  677.221  120.355
477.965  97.877  343.776
133.546  286.317  866.113
709.598  567.936  100.641
491.742  506.876  800.043
481.199  791.992  151.163
170.466  851.578  33.1015
672.658  462.559  831.044
650.665  747.482  56.6639
971.226  61.8592  223.289
423.66  794.267  248.073
48.4898  339.85  701.591
356.938  121.003  963.551
503.626  654.907  849.792
31.2347  449.168  690.48
747.176  376.11  855.938
888.908  886.862  175.407
742.139  178.115  809.351
87.8243  774.302  690.116
32.8707  889.03  98.917
609.217  633.494  74.2949
769.738  121.359  534.936
144.437  241.673  755.298
132.888  512.913  503.197
670.038  368.365  964.907
118.501  702.467  820.27
281.204  969.081  784.343
878.028  809.61  348.835
261.507  680.767  839.021
429.939  35.2882  107.787
414.887  811.456  597.002
75.4459  230.404  811.899
261.842  639.459  101.715
151.846  102.809  240.187
517.475  256.346  173.41
727.659  918.557  427.263
906.973  168.8  531.407
162.786  960.171  523.43
810.581  336.02  124.846
652.403  178.315  544.781
65.2924  965.648  748.405
125.943  909.531  189.531
658.911  241.546  815.926
940.118  857.056  310.677
108.347  473.25  841.558
670.676  866.894  307.726
134.803  442.852  159.952
243.521  200.374  746.631
564.019  496.056  64.2835
573.34  129.331  489.586
859.368  168.322  839.1
32.974  665.573  193.041
419.789  256.417  121.137
441.966  884.527  679.988
713.059  346.875  192.055
903.723  73.3722  226.918
181.086  861.838  589.681
420.298  89.4666  943.873
243.287  251.584  89.7952
200.585  484.41  329.493
718.58  705.369  863.536
696.475  535.686  954.79
68.7781  53.4138  292.936
930.036  110.873  552.944
260.031  69.4294  718.999
138.755  741.433  774.224
841.764  39.089  551.173
250.194  668.495  170.743
396.806  800.317  538.73
880.572  132.982  694.115
696.49  400.611  247.936
169.378  345.008  259.038
101.916  255.662  844.707
354.637  688.235  103.268
65.839  180.309  685.848
159.838  780.532  453.992
201.322  933.295  715.837
902.576  365.268  70.4313
123.863  288.438  186.597
360.913  37.4246  420.11
579.963  648.788  926.283
39.7402  551.201  424.727
920.075  903.408  399.217
35.0595  193.268  433.802
726.672  208.98  340.83
300.936  858.994  787.212
112.062  487.994  603.794
348.474  70.7517  413.28
499.879  797.797  935.336
563.298  618.638  95.3372
389.637  731.269  937.994
891.129  436.411  185.448
621.971  491.651  876.561
898.762  434.306  357.505
711.08  790.382  647.695
754.442  786.64  428.75
326.978  801.015  101.809
648.397  46.8384  911.379
603.753  896.989  421.805
614.766  105.427  282.466
573.459  118.966  36.5153
880.493  842.708  199.065
245.759  330.849  230.206
694.797  448.765  901.989
83.7608  723.279  579.239
204.873  232.518  447.114
966.201  705.835  792.503
454.894  455.879  830.296
125.661  967.864  780.629
853.18  245.971  900.292
119.841  566.165  531.775
964.879  912.874  148.05
797.865  233.364  569.01
932.828  757.746  797.652
290.929  813.697  227.108
536.662  549.33  508.121
749.968  157.522  908.157
770.463  359.641  615.342
572.43  601.246  30.0723
223.509  926.539  858.61
137.026  679.715  711.167
538.975  31.4486  664.84
846.058  319.458  476.672
857.812  480.857  606.856
733.666  256.346  145.468
711.803  349.49  302.871
576.088  420.014  960.582
284.545  962.729  492.771
340.542  190.554  345.559
104.932  690.158  504.528
171.687  693.599  821.914
168.585  562.466  813.167
802.939  185.938  738.928
361.238  325.6  967.602
262.227  139.118  372.253
489.37  836.097  98.5872
893.664  820.911  437.67
570.169  896.764  319.917
191.509  198.392  184.549
520.525  175.343  475.255
302.696  757.672  689.476
383.245  234.807  231.188
328.177  69.932  165.916
33.4906  35.2945  879.966
834.005  395.732  331.948
195.615  735.083  777.046
232.369  388.123  73.2188
529.483  377.933  195.988
759.316  787.3  473.652
612.183  848.843  128.625
933.672  588.453  398.613
970.129  132.105  626.029
512.984  185.386  35.5366
214.882  890.075  768.907
894.87  285.896  332.666
204.975  818.851  817.407
719.866  840.366  875.965
608.552  232.322  108.661
97.6287  445.298  325.345
599.469  317.282  30.8424
527.563  969.888  416.391
824.372  261.556  263.383
904.922  917.075  153.938
440.166  920.688  119.296
194.028  262.45  56.4303
312.886  760.711  32.6049
332.451  109.124  110.029
550.066  903.539  279.677
316.309  785.835  904.689
554.143  33.3717  229.424
967.135  136.114  271.938
763.331  67.2536  94.5787
947.903  927.443  689.531
31.9415  650.528  568.144
97.1951  162.337  820.931
465.866  227.702  91.3596
174.191  384.869  27.3465
858.438  471.51  73.9168
897.458  390.75  537.662
830.172  729.493  36.5624
544.013  536.54  357.162
847.152  29.0196  848.325
548.345  492.359  243.12
961.618  801.208  406.761
179.484  958.286  409.258
219.716  624.619  688.127
737.596  506.375  160.066
536.467  203.305  127.682
676.026  33.2823  801.165
942.003  158.923  745.097
304.772  891.282  584.53
237.196  813.751  297.566
629.604  123.813  72.013
145.466  693.169  782.837
499.831  652.389  189.165
278.975  813.306  651.211
396.892  653.214  842.377
857.98  224.618  334.881
960.807  263.388  216.401
962.953  163.73  349.425
502.881  904.065  859.418
901.747  141.818  280.232
710.81  965.133  417.533
892.036  865.497  642.097
597.947  99.9076  75.1428
782.128  711.758  90.6638
585.945  865.288  344.978
450.798  791.054  780.925
75.0725  674.952  591.283
279.394  883.401  71.4948
785.229  796.771  351.305
755.244  69.0011  649.055
905.525  607.929  255.758
462.676  754.77  85.4383
618.27  921.812  575.444
237.613  524.975  862.547
635.084  889.949  200.202
833.18  505.763  107.074
495.115  451.294  872.796
944.161  887.04  132.445
113.753  390.242  186.463
844.873  964.451  960.506
902.5  108.048  430.326
361.571  281.062  345.533
636.124  399.55  710.982
258.68  433.502  35.4859
599.302  602.458  969.863
350.373  62.9311  302.265
264.051  579.838  854.493
543.881  465.086  106.51
269.009  281.783  102.743
210.501  967.231  559.31
274.232  749.014  875.321
805.672  55.1797  30.2118
243.467  833.484  568.114
965.798  768.65  262.56
358.245  880.554  900.386
83.5145  914.939  667.274
62.7716  145.355  393.7
908.421  682.716  187.564
899.955  364.309  663.762
489.83  366.894  340.419
855.948  363.974  825.999
638.891  833.424  886.654
891.781  195.311  661.683
170.137  154.281  466.532
882.664  807.026  282.725
87.6357  360.534  540.041
915.983  966.844  63.0526
136.435  157.792  239.136
655.656  649.439  603.638
194.352  42.308  307.486
174.094  74.2473  290.91
964.239  399.789  602.165
797.697  151.756  498.6
138.245  294.79  698.04
236.766  178.355  117.801
85.1061  561.676  698.392
267.034  917.362  53.9505
498.136  122.03  795.86
643.885  125.651  233.575
901.577  773.348  245.369
949.982  165.148  588.796
391.798  153.192  103.332
739.578  188.312  873.928
859.517  270.455  269.09
585.533  889.913  769.294
887.641  745.472  136.909
187.955  741.894  863.496
867.972  404.578  812.894
563.833  851.94  171.682
954.188  417.534  73.6797
968.521  874.737  592.822
130.682  577.967  707.51
678.926  274.391  821.317
373.753  449.84  870.91
932.746  113.995  721.641
448.168  106.346  673.231
452.045  921.203  279.544
177.283  159.48  84.7739
248.181  309.179  737.127
133.803  262.535  490.348
744.9  741.665  126.115
206.079  713.959  503.935
807.935  914.779  186.693
229.15  861.017  331.964
804.54  113.174  373.11
193.656  785.395  159.205
832.857  370.451  934.518
860.985  435.059  220.36
633.635  406.173  950.108
205.075  604.751  37.991
965.493  350.86  331.635
170.254  304.724  236.117
376.65  281.626  448.25
684.345  368.77  916.722
155.222  879.853  948.209
228.844  297.79  346.531
961.009  874.145  657.556
743.184  733.131  293.098
668.002  907.895  514.894
256.685  294.982  67.4804
324.153  743.364  494.011
215.232  882.419  593.352
708.167  132.803  568.785
305.549  934.703  238.524
832.188  280.001  378.643
105.102  491.289  481.236
79.6742  48.5658  657.888
580.104  858.395  222.067
605.605  613.741  557.296
631.761  457.948  356.968
475.515  769.266  48.0803
552.315  889.58  90.9155
647.195  265.663  852.403
393.322  677.131  752.314
842.85  208.726  695.892
882.17  532.628  193.177
787.929  831.452  325.311
916.094  759.507  565.351
705.251  867.3  301.151
139.33  607.556  216.516
854.284  545.576  559.964
436.415  816.916  501.275
915.16  529.788  227.736
458.651  755.334  122.178
968.479  528.566  86.8437
586.883  498.493  470.158
184.071  130.77  498.317
213.414  881.777  371.07
565.244  125.471  943.904
569.632  711.816  361.689
957.093  833.204  53.2479
136.609  908.418  820.544
903.547  742.789  469.9
428.649  220.704  135.417
412.957  956.837  793.157
684.503  850.928  743.861
395.613  932.273  99.7942
182.147  434.527  691.216
390.481  556.008  577.952
873.61  486.666  168.375
524.708  33.2185  568.024
968.433  253.463  169.84
178.359  324.96  289.769
358.708  152.164  427.419
255.064  30.1185  666.885
786.257  609.134  600.074
791.305  202.64  265.854
277.535  912.409  399.572
376.773  100.637  518.727
882.271  143.247  331.921
403.288  788.07  425.482
238.827  690.003  89.1776
475.712  190.458  350.037
767.455  550.04  208.238
439.993  168.007  969.482
782.995  320.092  109.079
337.815  836.652  114.126
571.452  855.758  699.561
907.893  122.088  83.4161
583.728  934.621  761.77
402.886  924.377  66.913
262.663  701.611  48.9594
746.071  801.016  170.276
486.443  243.637  125.283
376.128  879.451  133.208
555.806  361.396  120.493
84.3661  924.227  81.6899
639.025  205.458  969.761
230.93  586.192  68.4987
742.649  67.4092  153.659
830.113  873.055  145.154
684.752  90.3386  720.214
787.283  706.177  535.909
712.554  473.287  922.286
872.711  752.152  490.16
827.049  146.915  308.696
543.04  138.506  676.087
264.355  197.107  143.055
919.749  803.307  223.728
422.229  911.698  535.679
803.772  564.284  904.786
622.374  617.035  818.151
751.823  34.5534  82.8138
66.6397  567.244  558.779
875.118  440.59  570.886
964.419  748.201  627.917
790.431  30.3051  677.435
467.353  902.905  860.251
664.924  823.772  211.377
682.656  251.337  851.614
523.66  474.36  862.9
417.99  127.296  370.76
722.463  903.758  146.856
554.155  684.458  63.0106
183.407  718.286  234.183
844.863  203.361  249.492
933.65  98.8411  197.961
482.38  792.81  864.326
769.746  293.1  223.697
279.533  195.137  111.73
964.763  84.7436  598.964
521.88  958.145  221.922
104.566  473.201  571.368
147.23  927.147  164.989
243.191  147.27  729.451
545.333  672.844  228.751
444.227  840.593  934.021
167.032  861.362  661.828
255.313  569.325  160.468
464.867  71.6439  484.81
804.538  218.889  827.545
322.418  237.618  263.891
649.566  140.888  106.385
162.241  554.678  919.739
482.165  892.642  742.228
270.006  314.376  531.703
224.211  828.295  233.672
110.727  492.807  681.648
647.557  836.388  164.287
831.356  462.902  263.655
928.767  213.288  816.785
475.515  110.782  94.705
204.737  752.935  383.489
44.8324  362.212  870.648
501.601  573.293  821.941
550.06  874.102  456.003
730.585  444.166  781.383
796.22  130.752  318.543
512.937  845.503  575.246
782.846  690.4  786.892
523.916  928.452  690.753
32.7808  833.612  531.416
188.279  404.494  102.479
490.067  486.667  720.293
961.457  642.234  72.029
321.577  196.741  961.652
77.4985  93.0679  417.943
203.967  744.625  547.113
164.736  141.005  434.975
854.921  135.112  352.116
656.785  861.041  799.381
282.799  244.526  195.225
64.7934  951.606  83.1377
264.817  946.203  403.275
167.026  745.014  200.776
862.85  306.287  392.016
476.588  273.715  827.912
215.589  211.671  159.886
739.57  834.831  335.334
817.091  336.399  808.531
601.739  584.966  856.21
281.612  894.706  365.334
223.692  706.219  914.104
501.967  200.591  136.813
368.943  839.616  159.185
408.365  89.5134  541.954
305.153  894.193  805.125
624.908  253.392  904.45
379.233  945.94  578.157
481.782  31.2059  130.28
928.316  197.637  935.472
115.243  457.111  440.491
67.2124  347.437  642.834
489.102  83.097  726.171
934.838  259.222  460.647
66.8881  558.911  395.864
463.162  171.201  829.239
302.658  233.836  227.895
450.036  210.257  374.051
880.892  750.236  926.075
109.527  681.258  94.285
872.048  802.33  781.79
357.136  152.686  472.803
443.198  764.614  178.339
594.143  432.683  919.934
902.961  941.624  624.794
107.656  165.334  353.44
581.303  34.0652  652.162
258.421  288.788  376.048
594.779  259.8  619.57
466.072  61.4889  306.304
155.392  897.27  595.471
307.946  749.077  894.849
712.62  882.08  175.691
892.965  842.8  315.317
786.254  125.633  706.881
838.468  249.834  863.455
199.054  486.165  522.771
630.968  789.039  239.307
813.909  299.583  115.771
428.17  149.915  941.247
621.873  148.597  204.465
518.789  666.054  98.6836
227.854  833.577  526.185
518.81  123.94  826.896
397.832  446.827  339.81
109.756  136.362  444.076
895.534  333.391  642.497
696.44  324.117  126.82
81.3686  694.598  476.951
831.794  460.039  225.057
864.333  269.729  392.798
695.451  154.662  523.454
651.443  566.444  85.3617
833.214  391.358  262.115
841.697  786.448  281.862
924.675  304.277  567.061
835.893  689.988  758.334
577.13  132.102  791.677
415.33  375.169  836.013
125.633  435.13  369.225
871.174  725.596  236.215
167.136  875.389  877.099
851.937  349.147  401.413
888.167  600.836  411.304
756.763  265.218  798.799
93.4175  770.741  812.899
155.417  230.773  92.8701
919.439  31.1954  948.243
468.609  148.268  98.4857
757.372  791.576  91.8084
673.892  219.463  442.325
863.799  274.414  314.526
877.023  702.189  199.719
258.425  702.281  772.379
285.126  951.951  823.095
436.473  185.238  798.558
503.375  531.95  832.648
363.494  124.517  916.564
597.555  93.5469  856.848
350.32  512.047  463.816
670.103  262.749  184.623
790.176  769.044  313.795
948.789  765.188  752.955
967.463  878.448  158.672
454.462  529.155  833.229
91.7411  327.255  125.365
641.618  179.898  783.172
78.7287  699.87  903.491
501.543  555.286  762.692
838.133  682.615  274.005
491.479  856.038  822.702
260.542  727.524  927.904
177.289  91.082  395.278
493.66  544.727  798.269
933.397  557.245  845.848
839.084  216.716  444.277
65.5539  864.502  347.385
789.115  576.123  765.478
111.558  619.639  795.974
738.731  352.997  83.9405
156.425  549.072  189.443
361.835  818.249  131.071
681.026  767.884  70.7499
768.623  839.756  545.113
964.087  352.78  552.695
143.32  416.109  915.472
301.067  163.516  522.26
363.662  49.3904  30.5734
780.138  247.31  162.148
134.552  656.039  489.973
713.595  113.586  164.437
362.313  592.311  30.5048
452.98  825.456  173.814
563.595  875.886  617.278
383.7  904.052  270.349
881.928  75.9279  541.056
841.918  687.66  170.855
439.188  571.165  642.497
299.673  635.8  108.027
131.951  148.443  816.227
813.054  650.318  964.251
884.048  480.197  575.531
344.916  410.685  266.166
848.091  64.074  372.507
796.554  462.287  243.898
364.427  98.0312  397.51
493.917  246.265  88.315
156.521  648.449  275.738
208.161  876.279  437.793
125.661  927.596  218.164
685.673  326.238  828.084
657.868  519.919  946.61
756.544  881.403  589.37
376.713  645.644  511.633
642.608  926.111  193.469
363.035  195.717  682.018
280.525  274.775  876.286
30.7431  332.637  845.95
800.9  226  953.931
117.622  252.105  197.497
216.347  619.649  69.3557
90.9535  654.872  556.478
798.623  618.176  246.535
110.472  391.754  481.227
896.318  669.024  261.151
354.628  805.117  165.948
300.87  602.034  544.048
842.593  358.188  195.672
107.574  889.879  128.068
243.345  500.233  896.829
632.908  881.81  596.257
816.665  414.73  456.927
221.933  455.265  907.92
188.366  303.735  859.511
616.45  149.332  133.929
881.884  785.69  743.351
83.0089  890.648  642.66
810.86  734.878  557.322
433.533  846.411  651.931
100.995  663.086  722.939
468.342  236.918  243.693
658.989  777.785  912.168
146.906  95.2139  411.312
595.711  490.18  123.824
626.119  99.741  620.28
606.144  740.211  180.975
819.414  393.816  614.848
621.161  351.861  886.184
828.905  537.76  534.198
159.959  356.866  667.279
818.044  932.444  660.781
442.941  897.464  583.355
812.986  426.691  274.803
802.449  610.741  542.128
110.686  68.5621  228.126
148.281  358.455  285.697
143.07  618.64  625.3
716.543  105.202  724.489
640.732  125.38  716.769
722.182  216.598  567.329
413.324  32.9204  922.319
703.535  910.648  238.226
491.463  190.532  864.239
662.192  137.599  407.018
153.003  205.8  326.357
569.301  192.831  138.914
842.525  623.131  421.68
334.362  181.588  868.998
541.721  208.632  37.923
448.6  51.5668  720.296
28.8049  839.257  793.374
103.706  722.415  885.268
594.982  797.167  747.097
149.933  832.593  275.663
485.405  911.724  903.515
546.293  232.666  785.393
33.788  756.6  751.345
920.552  575.132  30.4206
353.968  875.819  166.035
902.518  505.265  361.411
296.303  928.137  198.639
632.024  802.963  906.575
864.679  570.494  31.5742
571.621  105.147  372.836
275.88  142.622  336.296
778.931  512.167  353.824
69.9267  319.127  447.757
131.745  100.186  567.419
914.449  284.755  441.511
766.998  869.038  187.923
632.15  61.6322  538.681
842.987  498.412  546.458
335.156  770.322  715.842
562.144  717.369  927.337
865.813  410.49  777.976
328.462  871.13  705.326
788.889  98.0962  733.58
732.675  570.006  61.7323
536.637  61.3977  967.566
160.913  918.763  222.163
144.676  776.712  727.865
163.442  275.924  674.231
936.156  435.958  676.254
61.6171  74.8546  449.348
636.642  86.7985  817.882
228.81  297.961  95.9613
201.593  882.96  172.191
212.889  670.512  898.192
265.704  185.855  274.583
661.976  705.23  192.269
841.359  591.162  313.562
712.911  493.789  839.59
760.198  877.061  41.7633
963.138  267.17  660.815
295.684  117.175  218.762
873.879  138.444  613.401
187.082  139.392  242.195
85.6194  606.506  402.88
336.568  456.599  937.751
567.339  535.023  907.094
904.073  267.412  560.308
201.225  936.769  371.632
282.941  317.946  64.559
511.062  908.096  378.67
544.79  909.03  598.487
339.88  238.401  334.907
110.383  330.406  853.036
170.067  399.549  852.987
181.903  206.621  255.04
767.312  627.78  933.007
378.945  916.14  545.086
591.827  331.456  765.545
783.158  897.121  966.117
89.329  459.426  481.923
183.833  680.243  719.764
183.309  244.621  478.231
271.433  278.615  963.152
275.675  349.774  32.2724
298.236  614.156  966.429
463.98  189.936  186.703
856.998  66.4149  779.892
292.698  293.426  663.794
869.139  84.0521  255.628
916.06  252.761  692.308
364.318  189.383  930.074
98.5406  73.1515  449.464
408.026  423.595  956.453
442.639  682.307  897.913
542.675  598.258  139.704
775.205  845.346  137.417
312.884  517.611  105.806
769.263  35.5292  272.394
339.026  605.727  120.524
622.807  80.2735  888.996
908.185  184.955  623.04
893.347  696.82  803.156
48.7196  28.1008  304.576
713.295  808.539  148.527
154.399  461.379  682.638
520.294  154.668  409.514
388.889  876.203  419.864
693.063  710.422  780.255
955.513  960.897  594.984
235.994  96.8764  796.282
285.025  388.068  858.236
769.014  531.822  71.349
33.8918  359.542  648.53
737.862  104.173  382.621
818.044  564.413  249.67
57.4493  168.141  524.871
62.0478  769.215  414.296
903.002  732.743  788.498
615.603  654.896  890.878
556.742  72.021  700.74
214.69  270.163  831.998
789.498  708.502  618.346
703.3  807.308  189.538
162.405  116.065  608.209
234.124  214.641  527.846
656.139  281.203  115.669
201.251  690.051  852.354
250.872  706.953  532.193
530.326  864.401  870.508
707.083  892.621  516.74
755.919  393.885  758.58
967.016  624.44  683.867
514.332  121.077  548.537
763.474  726.919  577.244
608.424  148.721  719.638
163.798  118.748  560.182
254.521  164.971  239.215
658.547  412.734  759.183
162.909  74.9216  257.913
657.101  873.024  152.383
848.842  684.228  324.391
187.222  103.512  250.029
751.475  127.746  56.875
82.356  380.036  466.029
865.377  886.292  207.297
881.365  965.798  52.0857
109.642  380.205  654.579
419.677  801.311  200.052
169.45  599.036  464.721
715.581  560.214  788.781
737.402  592.701  92.0959
712.661  419.665  803.683
241.774  843.248  622.793
811.196  126.544  529.533
711.426  530.878  207.207
861.938  869.755  369.962
845.71  299.311  290.969
679.208  37.6821  34.0457
923.639  36.7177  211.408
504.201  716.311  966.262
280.787  229.583  285.229
908.434  735.069  688.808
354.684  914.768  157.67
211.376  185.054  411.551
94.0147  791.119  162.077
730.523  313.1  766.939
537.783  686.873  884.275
811.841  848.242  178.463
474.25  133.616  175.324
405.553  269.862  360.501
220.385  129.327  798.237
344.347  765.191  443.985
40.7256  761.576  515.337
668.393  913.233  591.432
519.357  889.605  339.77
181.317  857.298  144.692
411.738  869.319  862.302
835.714  483.893  509.352
967.183  240.352  637.467
745.155  536.005  409.06
589.936  302.343  97.9615
335.012  750.01  754.635
291.967  108.211  932.626
699.713  838.336  210.684
858.014  628.355  317.171
748.082  596.691  36.9921
637.565  383.827  412.455
736.605  464.79  866.778
896.956  512.083  323.891
152.218  564.814  230.495
280.49  507.967  457.166
451.86  417.352  908.432
903.266  415.019  647.894
874.66  705.182  766.08
804.249  755.909  887.097
411.07  156.15  676.604
265.463  35.0175  185.613
901.56  104.197  210.651
494.852  754.152  203.541
763.711  679.336  483.434
477.98  885.645  270.909
305.468  146.785  486.358
99.1715  801.955  539.196
303.483  266.125  791.591
180.783  510.164  468.27
269.958  95.5072  200.873
102.911  162.926  782.45
282.659  742.957  142.92
505.639  590.752  325.213
560.783  856.253  312.207
780.939  757.943  449.017
918.645  728.34  829.939
301.18  380.46  915.27
882.416  908.49  523.949
597.607  852.971  737.03
447.867  192.81  486.966
212.552  321.9  820.874
481.833  895.295  155.435
854.23  310.397  893.184
568.124  97.3695  538.633
741.595  709.939  893.496
560.031  649.218  137.252
96.1013  369.922  231.779
593.321  65.1886  585.928
138.39  242.348  883.739
438.716  106.116  86.8672
683.354  915.6  379.71
77.1723  118.875  545.716
524.188  101.06  595.119
637.867  565.528  876.597
287.598  341.799  583.267
157.656  765.075  403.704
689.047  667.626  172.458
460.018  750.264  329.719
303.093  253.067  388.542
846.965  801.438  392.342
832.459  872.439  751.817
966.836  123.017  304.881
826.634  330.968  760.984
950.929  758.806  398.79
226.281  786.862  342.36
481.204  954.351  187.984
963.338  587.411  120.943
452.107  661.514  679.181
569.304  484.991  773.445
67.5065  163.745  615.496
494.766  82.6136  878.455
525.35  220.331  160.886
115.105  691.911  448.737
771.328  296.087  770.479
767.494  96.0976  114.065
314.398  216.705  404.181
123.054  325.356  340.906
933.34  424.28  732.756
137.901  718.823  225.514
434.235  839.725  319.056
968.399  441.855  745.677
317.439  90.5732  839.913
344.312  964.907  506.547
933.903  166.762  429.201
553.806  440.871  872.446
480.45  434.574  930.117
134.561  387.202  76.7629
228.258  678.249  802.881
666.965  755.959  556.345
111.258  353.723  498.931
302.112  776.458  405.601
881.466  836.94  528.149
879.033  504.325  52.3393
131.385  437.706  597.413
293.02  727.296  750.639
480.376  678.299  916.07
717.612  802.135  576.011
833.278  279.01  661.868
940.677  391.357  563.181
797.417  783.846  845.533
242.759  875.84  182.976
240.575  239.822  212.446
465.487  163.366  141.818
95.6451  948.914  391.023
633.291  135.623  576.909
869.508  744.439  761.107
254.023  138.77  771.338
883.57  452.62  39.2567
939.372  180.602  709.421
466.613  159.021  528.149
733.711  382.228  672.965
589.818  235.636  796.452
677.408  65.734  817.164
667.109  841.523  845.163
164.82  685.069  205.902
838.675  196.991  352.862
887.128  213.241  147.901
73.8054  573.149  623.942
213.542  497.861  110.193
561.505  406.836  921.959
138.55  866.116  258.489
864.246  727.471  174.99
822.141  803.029  508.473
30.5335  34.5215  784.419
858.281  733.005  689.096
878.148  291.232  138.286
871.844  130.509  875.921
192.507  448.689  493.499
892.743  603.323  472.41
527.701  932.162  821.307
358.528  221.937  848.884
372.326  111.85  289.863
264.93  448.002  386.954
383.165  394.325  971.823
416.842  530.549  851.831
150.931  729.389  125.982
386.882  824.187  463.197
51.6163  734.763  352.327
745.814  273.994  839.729
531.554  185.559  381.549
701.583  459.969  735.862
236.672  104.189  210.552
550.493  142.583  244.009
926.778  134.235  583.948
917.327  193.283  586.754
101.389  768.055  849.415
663.03  549.407  122.995
808.205  867.154  674.627
108.444  506.883  550.042
280.617  325.255  922.122
112.1  917.31  728.953
411.001  35.1731  482.242
849.148  62.9205  415.153
204.41  428.478  933.433
93.0804  442.605  556.498
790.802  837.633  443.55
280.323  696.95  84.8877
709.795  766.088  419.655
215.398  795.599  270.935
378.307  725.188  188.632
863.007  935.665  304.167
840.763  532.767  743.881
75.7163  382.676  636.655
346.04  679.546  67.2813
617.978  161.377  322.3
397.071  635.838  182.117
596.504  894.738  463.671
62.3848  610.697  155.979
225.811  239.971  385.754
403.96  679.448  118.325
369.066  543.591  936.425
882.894  65.2324  639.197
737.006  102.728  86.4731
357.376  870.657  670.359
624.354  361.316  741.465
909.965  79.58  128.471
275.482  796.282  382.31
927.969  820.568  193.298
654.665  922.687  544.703
509.139  212.969  928.286
622.711  900.134  832.607
731.521  922.671  338.089
784.086  526.1  737.796
774.032  542.291  852.028
144.424  401.477  222.565
673.333  649.579  683.145
831.57  755.166  124.637
932.472  591.891  834.128
516.734  557.38  858.887
212.764  569.69  97.4209
693.181  203.868  801.777
495.405  724.99  524.834
460.131  248.01  400.181
881.257  286.72  533.53
170.538  195.379  97.9093
616.947  196.271  34.8937
717.966  802.922  230.102
167.703  126.855  657.278
926.348  617.229  536.758
869.733  166.578  447.813
35.4713  810.835  769.395
305.504  853.682  660.787
935.879  153.447  277.464
720.66  238.088  861.614
436.967  284.887  234.659
810.049  652.452  183.01
841.661  415.986  41.4612
964.862  684.631  429.545
33.2689  823.903  458.378
404.756  168.115  578.864
253.248  764.304  929.698
159.577  866.06  187.588
796.564  409.689  871.107
452.54  625.964  857.042
666.507  773.825  388.493
174.331  847.272  73.7579
560.137  488.189  128.786
408.505  215.443  654.659
422.511  686.904  172.6
137.007  217.865  616.271
166.744  443.742  811.317
507.685  638.653  281.171
150.547  893.4  204.088
295.665  637.143  198.466
349.119  834.222  370.05
349.886  47.5628  270.342
765.592  215.691  806.495
513.673  311.487  103.189
666.27  364.274  813.912
625.223  43.3487  767.401
804.009  98.6552  893.747
185.138  222.22  807.74
790.9  824.62  875.739
407.724  557.065  810.808
636.143  422.632  99.8059
956.263  425.9  542.804
84.8128  898.339  598.675
890.292  446.152  238.933
365.293  58.7613  131.652
191.972  363.888  446.618
823.602  518.119  857.281
434.439  388.75  938.663
179.446  352.56  819.799
94.678  283.109  872.12
868.056  174.846  523.386
169.07  835.613  874.843
844.868  380.904  384.097
333.226  496.688  717.75
28.378  156.185  489.512
118.242  250.399  414.909
607.713  551.01  287.371
607.422  320.875  840.629
32.7988  147.77  137.722
931.961  864.825  498.317
897.011  226.921  411
648.389  546.235  969.823
682.835  229.728  510.067
763.386  389.418  898.847
822.359  428.875  584.668
774.037  400.366  839.937
289.325  437.69  83.5516
816.658  889.594  885.393
622.665  931.438  661.356
598.219  715.371  34.077
504.043  946.222  629.132
816.07  322.52  388.443
950.973  697.647  35.8849
189.114  526.457  620.927
686.423  157.419  245.553
125.31  445.123  855.224
562.988  197.688  470.501
402.279  882.358  309.636
248.731  353.814  705.043
269.776  601.689  673.406
672.816  615.339  858.013
451.361  108.533  159.075
625.252  122.084  345.177
149.665  811.04  904.611
754.066  404.175  632.385
144.213  855.335  822.49
913.624  465.685  772.409
725.759  904.595  644.219
407.814  626.025  79.5162
243.783  702.019  675.736
610.331  870.43  168.076
709.136  92.5666  457.932
408.659  265.019  873.756
635.208  34.2855  481.012
881.07  780.756  616.441
883.151  963.193  245.586
747.989  665.261  64.3008
871.249  45.3933  288.397
864.201  230.691  169.715
449.824  852.967  870.144
888.719  490.672  452.403
143.104  216.785  245.787
273.638  191.726  573.231
622.924  827.959  843.598
846.868  325.248  103.105
548.883  228.545  107.472
190.639  638.138  82.088
889.338  872.803  529.23
250.797  252.776  180.03
306.76  766.187  788.139
547.566  861.986  272.496
549.181  108.378  775.559
171.645  448.336  615.31
135.046  98.5149  622.209
347.301  622.078  164.476
524.087  235.641  403.021
772.088  799.942  317.899
640.948  215.542  187.868
659.374  262.267  656.891
488.91  174.737  740.71
882.326  243.886  317.061
68.2704  31.9198  98.4346
932.786  523.9  862.737
55.3786  617.654  416.296
149.039  658.716  521.849
635.289  153.636  848.412
884.732  386.59  245.302
686.195  259.419  403.795
887.379  196.825  224.332
549.276  777.689  608.915
903.334  305.714  110.999
938.315  357.797  579.041
195.018  173.421  666.69
769.808  202.108  223.357
337.445  908.457  910.817
655.054  750.317  260.069
573.963  189.025  893.198
274.363  433.698  202.666
205.234  507.225  844.492
515.627  962.637  570.254
37.2156  845.246  423.258
431.205  824.767  442.202
774.72  830.264  175.889
207.285  596.968  265.947
331.862  187.273  384.125
689.461  175.996  169.709
557.955  38.7854  150.979
212.336  29.8003  113.659
520.936  107.796  871.109
86.3817  157.539  584.327
740.194  355.435  772.335
659.556  42.755  185.234
328.859  891.916  880.576
119.976  781.472  379.421
597.282  833.95  161.75
897.936  494.273  292.493
739.607  494.971  888.993
575.383  659.215  846.499
190.844  133.033  780.84
694.8  562.212  405.449
900.595  699.32  694.824
346.242  901.337  189.302
154.516  256.677  416.097
